0.579227 0.71079 0.399091
0.7825 0.568519 -0.25393
0.357121 0.839643 -0.409225
0.441426 0.160357 -0.882852
-0.322871 0.078193 0.943207
-0.296646 -0.912982 0.280114
-0.840675 0.152697 0.519566
0.465087 0.799133 0.380895
0.854992 -0.331232 0.399091
-0.525422 0.381741 0.760398
-0.886397 -0.23458 0.399091
-0.638452 0.604043 0.476981
-0.679852 0.0 0.733349
-0.315253 -0.229045 0.920953
0.361803 -0.262866 0.894427
0.951057 0.309017 0.0
0.379682 -0.915502 0.13303
-0.152509 -0.988302 0.0
0.515947 -0.846716 0.129891
-0.205433 0.0 0.978671
0.67082 -0.688191 0.276393
-0.988023 -0.078193 -0.13303
0.200693 -0.617671 0.760398
0.636088 -0.759464 0.136408
0.465087 -0.799133 0.380895
-0.379682 0.915502 -0.13303
-0.531939 0.681718 0.502295
-0.845288 -0.517485 0.13303
0.16246 0.5 0.850651
0.262866 -0.389196 0.882852
-0.587785 0.129732 -0.798548
-0.921508 -0.282906 -0.266061
-0.861803 0.425325 -0.276393
-0.753443 0.0 -0.657513
-0.093455 0.919883 -0.380895
0.840675 0.152697 -0.519566
0.67082 0.16246 -0.723607
-0.525422 -0.381741 0.760398
0.399274 0.450447 -0.798548
0.956626 0.147621 0.251148
0.609548 0.442863 -0.657513
-0.551783 0.240536 0.798548
0.0 1.0 0.0
-0.947214 -0.16246 0.276393
-0.447214 0.525731 -0.723607
-0.964711 -0.229045 -0.129891
-0.753366 0.23458 0.614338
0.886397 -0.23458 -0.399091
-0.11456 -0.846716 0.519566
0.447214 0.525731 0.723607
0.471604 -0.632597 0.614338
-0.354413 -0.863954 -0.357736
-0.029644 -0.864188 -0.502295
-0.753366 0.644005 0.13303
0.753366 -0.644005 -0.13303
0.309017 -0.951057 0.0
-0.846658 -0.513375 -0.140057
-0.383206 -0.912982 0.140057
0.409955 -0.399607 0.819909
0.361803 -0.587785 -0.723607
0.457527 -0.889196 0.0
0.988023 0.078193 0.13303
0.405006 -0.752344 -0.519566
0.587785 -0.129732 0.798548
-0.7825 -0.568519 0.25393
0.679852 0.0 -0.733349
-0.210086 0.646578 0.733349
-0.794546 0.490634 0.357736
-0.262866 -0.809017 0.525731
-0.015702 0.963828 -0.266061
0.587785 0.809017 0.0
0.801024 0.120751 0.586328
0.0 -1.0 0.0
0.096777 0.564254 -0.819909
0.723607 -0.525731 -0.447214
-0.052786 0.688191 0.723607
0.566543 -0.082324 -0.819909
0.315253 -0.229045 -0.920953
-0.723607 -0.525731 0.447214
0.577066 0.568519 -0.586328
0.871566 0.113409 0.476981
0.025407 0.331232 -0.943207
0.771772 0.420544 -0.476981
-0.166199 -0.120751 -0.978671
0.908904 -0.080179 -0.409225
0.447214 -0.850651 -0.276393
-0.70626 -0.126519 -0.696556
-0.845288 0.517485 0.13303
0.688191 0.599106 0.409225
0.49701 0.770524 -0.399091
-0.025407 -0.331232 0.943207
-0.956626 0.147621 -0.251148
-0.723607 0.525731 0.447214
-0.093455 -0.919883 -0.380895
-0.377187 0.793863 -0.476981
0.753366 -0.23458 -0.614338
-0.077609 0.238856 -0.967949
0.723607 0.525731 -0.447214
0.257942 0.793863 0.550679
0.915097 0.381741 -0.129891
0.911803 -0.312773 -0.266061
0.587785 -0.809017 0.0
0.015702 -0.963828 0.266061
-0.226617 -0.963861 0.140057
-0.911803 -0.312773 0.266061
0.399274 -0.450447 -0.798548
-0.525731 0.0 -0.850651
0.638197 0.262866 0.723607
0.276393 0.850651 0.447214
0.587785 0.129732 0.798548
0.918855 0.370268 0.136408
-0.253366 -0.513375 0.819909
0.457527 0.889196 0.0
0.525731 -0.839643 -0.136408
0.383206 0.912982 -0.140057
0.309017 0.951057 0.0
0.846658 -0.513375 0.140057
-0.845982 0.37314 0.380895
0.812731 0.295242 -0.502295
0.90374 -0.195379 0.380895
0.834717 0.0 0.550679
-0.354413 0.863954 -0.357736
0.447214 -0.525731 0.723607
0.638452 0.604043 -0.476981
-0.465087 -0.799133 -0.380895
-0.447214 -0.525731 -0.723607
0.831052 0.238856 0.502295
-0.771772 0.420544 0.476981
0.70626 -0.126519 0.696556
-0.49701 0.770524 0.399091
0.16246 0.759464 -0.629938
0.455902 0.644005 -0.614338
0.362371 0.724505 0.586328
1.0 0.0 0.0
-0.096777 0.564254 0.819909
0.67082 -0.16246 -0.723607
-0.915097 -0.381741 0.129891
0.515947 0.846716 0.129891
-0.050813 -0.915502 0.399091
-0.609548 0.442863 0.657513
0.921508 0.282906 0.266061
-0.262866 0.389196 -0.882852
0.590368 0.617671 0.519566
0.050813 -0.915502 -0.399091
0.845288 0.517485 -0.13303
-0.531939 -0.681718 0.502295
-0.036849 0.113409 -0.992865
-0.649457 0.0 -0.760398
0.871566 -0.113409 0.476981
-0.525731 -0.839643 0.136408
0.016101 -0.469374 0.882852
0.132689 -0.799133 0.586328
-0.361803 0.587785 0.723607
0.253366 0.513375 -0.819909
-0.11456 0.846716 0.519566
0.152509 -0.988302 0.0
-0.009704 0.788983 0.614338
0.068204 0.988302 -0.136408
-0.951057 0.309017 0.0
-0.257942 0.793863 -0.550679
0.361803 0.262866 0.894427
-0.425325 -0.309017 0.850651
-0.6753 0.490634 0.550679
0.305018 0.518928 0.798548
-0.854992 0.331232 -0.399091
-0.361803 -0.587785 0.723607
-0.465087 0.799133 -0.380895
0.322871 -0.078193 -0.943207
0.16147 -0.863954 0.476981
-0.441426 -0.160357 0.882852
-0.409955 0.399607 -0.819909
-0.251148 0.0 -0.967949
-0.16246 0.5 -0.850651
-0.688191 0.5 -0.525731
-0.506732 -0.266405 -0.819909
0.307169 0.126519 0.943207
-0.579227 -0.71079 -0.399091
0.16246 -0.5 0.850651
0.215248 -0.253039 0.943207
-0.457527 0.889196 0.0
-0.455902 -0.644005 0.614338
0.029644 -0.864188 0.502295
-0.361803 0.262866 -0.894427
0.16147 0.863954 0.476981
0.354413 0.863954 0.357736
0.226617 0.963861 -0.140057
0.015702 0.963828 0.266061
-0.16147 -0.863954 -0.476981
-0.16246 -0.759464 0.629938
-0.986715 0.082324 0.140057
-0.257942 -0.793863 -0.550679
-0.009704 -0.788983 0.614338
-0.515947 -0.846716 -0.129891
-0.894427 0.0 -0.447214
0.138197 0.425325 -0.894427
0.11456 -0.846716 -0.519566
0.016101 0.469374 0.882852
0.315253 0.229045 -0.920953
0.23095 0.963828 0.13303
0.908904 0.080179 -0.409225
0.314969 0.709911 -0.629938
0.232827 -0.716567 0.657513
-0.776629 -0.564254 -0.280114
0.447214 0.850651 -0.276393
0.11456 0.846716 -0.519566
-0.860696 -0.442863 0.251148
0.967223 0.0 0.25393
-0.67209 0.389196 -0.629938
-0.253366 0.513375 0.819909
0.794546 -0.490634 -0.357736
-0.871566 -0.113409 -0.476981
-0.688191 -0.5 -0.525731
-0.967223 0.0 -0.25393
-0.451377 0.129732 -0.882852
0.455902 -0.644005 -0.614338
-0.772496 0.080179 0.629938
-0.645743 0.312773 0.696556
-0.063482 0.195379 0.978671
-0.845982 -0.37314 0.380895
0.638452 -0.604043 -0.476981
0.361803 0.587785 -0.723607
-0.314969 -0.709911 0.629938
-0.377187 -0.793863 -0.476981
0.753366 0.644005 -0.13303
-0.399274 0.450447 0.798548
0.846658 0.513375 0.140057
0.383206 -0.912982 -0.140057
-0.712149 0.604043 0.357736
0.058253 -0.599106 0.798548
-0.704292 0.709911 0.0
0.063482 -0.195379 -0.978671
-0.483974 0.716567 -0.502295
0.097919 -0.71079 0.696556
0.688191 -0.599106 0.409225
0.845982 0.37314 -0.380895
-0.232827 0.716567 -0.657513
-0.120416 -0.370602 -0.920953
-0.221093 -0.907272 -0.357736
0.782447 -0.469374 0.409225
-0.138197 -0.425325 0.894427
0.7825 -0.568519 -0.25393
0.166199 0.120751 0.978671
0.200693 0.617671 0.760398
0.987059 -0.160357 0.0
-0.609548 -0.442863 0.657513
0.911803 0.312773 -0.266061
0.772496 -0.080179 -0.629938
0.257942 -0.793863 0.550679
0.097919 0.71079 0.696556
0.894427 0.0 0.447214
-0.636088 0.759464 -0.136408
0.553821 0.788983 0.266061
0.809017 -0.587785 0.0
-0.67082 -0.688191 -0.276393
-0.90374 -0.195379 -0.380895
0.436009 0.864188 0.251148
0.132689 0.799133 0.586328
0.068204 -0.988302 -0.136408
0.451377 0.129732 0.882852
-0.23095 0.963828 -0.13303
-0.203183 -0.147621 0.967949
0.951057 -0.309017 0.0
0.67209 -0.389196 0.629938
0.831052 -0.238856 0.502295
-0.068204 -0.988302 0.136408
0.6753 0.490634 -0.550679
-0.915097 0.381741 0.129891
-0.908904 0.080179 0.409225
0.753366 0.23458 -0.614338
0.531939 0.681718 -0.502295
0.305018 -0.518928 0.798548
-0.587785 -0.129732 -0.798548
0.506732 0.266405 0.819909
0.298888 0.919883 0.25393
0.892803 0.450447 0.0
-0.49701 -0.517485 0.696556
-0.096471 0.070091 0.992865
-0.801024 -0.120751 -0.586328
-0.687157 -0.681718 0.251148
-0.447214 0.0 0.894427
0.6163 0.68927 -0.380895
0.638197 -0.262866 0.723607
0.093455 -0.919883 0.380895
-0.645838 -0.752344 0.129891
-0.590368 -0.617671 -0.519566
0.749881 0.646578 0.140057
-0.577834 0.518928 -0.629938
0.712149 0.604043 -0.357736
0.471604 0.632597 0.614338
0.221093 -0.907272 0.357736
0.063482 0.195379 -0.978671
0.314969 -0.709911 -0.629938
0.036849 0.113409 0.992865
0.860696 -0.442863 -0.251148
-0.947214 0.16246 0.276393
-0.155218 -0.955423 -0.251148
0.609548 -0.442863 -0.657513
0.931189 0.070091 0.357736
0.782447 0.469374 0.409225
0.918855 -0.370268 0.136408
0.769873 -0.370602 0.519566
0.253366 -0.513375 -0.819909
0.860696 0.442863 -0.251148
-0.515947 0.846716 -0.129891
0.688191 0.5 0.525731
-0.080277 0.988273 -0.129891
-0.861803 -0.425325 -0.276393
-0.166199 0.120751 -0.978671
0.052786 0.688191 -0.723607
-0.6753 -0.490634 0.550679
-0.590368 0.617671 -0.519566
0.096471 0.070091 -0.992865
0.886397 0.23458 -0.399091
0.649457 0.0 0.760398
0.577834 0.518928 0.629938
-0.307169 0.126519 -0.943207
0.405006 0.752344 -0.519566
-0.587785 0.809017 0.0
0.636088 0.759464 0.136408
-0.215248 -0.253039 -0.943207
0.931189 -0.070091 0.357736
0.67082 0.688191 0.276393
-0.447214 0.850651 0.276393
0.550012 -0.399607 0.733349
-0.892803 -0.450447 0.0
-0.16246 0.759464 0.629938
-0.886397 0.23458 0.399091
-0.409955 -0.399607 -0.819909
0.579227 0.770524 -0.266061
-0.70626 0.126519 -0.696556
-0.296646 0.912982 0.280114
0.590368 -0.617671 0.519566
0.483974 -0.716567 0.502295
-0.298888 -0.919883 -0.25393
-0.357121 0.839643 0.409225
0.029644 0.864188 0.502295
0.096471 -0.070091 -0.992865
0.288917 -0.370268 -0.882852
-0.152509 0.988302 0.0
0.550012 0.399607 0.733349
-0.025407 0.331232 0.943207
0.719017 0.37314 -0.586328
0.436009 -0.864188 0.251148
-0.016101 0.469374 -0.882852
0.772496 0.080179 -0.629938
-0.987059 0.160357 0.0
0.961007 -0.240536 -0.136408
-0.383206 0.912982 0.140057
0.704292 -0.709911 0.0
0.0 0.0 -1.0
-0.077609 -0.238856 -0.967949
0.964711 0.229045 0.129891
-0.338573 0.632597 -0.696556
-0.577066 -0.568519 0.586328
-0.921508 0.282906 -0.266061
-0.846658 0.513375 -0.140057
0.138197 0.951057 -0.276393
-0.068204 0.988302 0.136408
-0.687157 0.681718 0.251148
0.553821 -0.788983 0.266061
-0.204612 0.889196 0.409225
-0.753366 -0.23458 0.614338
-0.307169 -0.126519 -0.943207
0.174139 0.282906 -0.943207
-0.315253 0.229045 0.920953
0.362371 -0.724505 0.586328
-0.769873 -0.370602 -0.519566
0.080277 0.988273 0.129891
0.861803 -0.425325 0.276393
0.288917 0.370268 -0.882852
-0.550012 -0.399607 -0.733349
-0.854992 -0.331232 -0.399091
-0.362371 -0.724505 -0.586328
-0.096777 -0.564254 0.819909
-0.747369 0.253039 -0.614338
-0.058253 -0.599106 -0.798548
-0.309017 0.951057 0.0
0.204612 0.889196 -0.409225
-0.749881 0.646578 -0.140057
0.058253 0.599106 0.798548
0.174139 -0.282906 -0.943207
0.338573 -0.632597 0.696556
0.776629 -0.564254 0.280114
-0.638197 -0.262866 -0.723607
-0.645743 -0.312773 0.696556
0.49701 -0.517485 -0.696556
-0.579227 0.770524 0.266061
0.812731 -0.295242 -0.502295
-0.262866 -0.389196 -0.882852
0.262866 -0.809017 -0.525731
-0.451377 -0.129732 -0.882852
0.753443 0.0 0.657513
-0.16147 0.863954 -0.476981
-0.203183 0.147621 0.967949
0.525422 0.381741 -0.760398
0.90374 0.195379 0.380895
0.645838 -0.752344 -0.129891
-0.447214 -0.850651 0.276393
-0.747369 -0.253039 -0.614338
0.794546 0.490634 -0.357736
0.322871 0.078193 -0.943207
-0.525731 0.839643 0.136408
-0.471604 0.632597 -0.614338
-0.138197 -0.951057 0.276393
-0.276393 -0.850651 -0.447214
0.093455 0.919883 0.380895
-0.67082 0.16246 0.723607
-0.210086 -0.646578 0.733349
0.232827 0.716567 0.657513
0.577066 -0.568519 -0.586328
-0.801024 0.120751 -0.586328
-0.232827 -0.716567 -0.657513
0.210086 0.646578 -0.733349
-0.67082 -0.16246 0.723607
-0.262866 0.809017 0.525731
-0.961007 0.240536 0.136408
-0.322871 -0.078193 0.943207
0.845288 -0.517485 -0.13303
-0.200693 -0.617671 -0.760398
-0.200693 0.617671 -0.760398
-0.436009 0.864188 -0.251148
-0.719017 -0.37314 0.586328
0.120416 -0.370602 0.920953
0.009704 -0.788983 -0.614338
-0.550012 0.399607 -0.733349
0.986715 0.082324 -0.140057
0.747369 -0.253039 0.614338
0.947214 0.16246 -0.276393
0.566543 0.082324 -0.819909
0.262866 0.389196 0.882852
-0.050813 0.915502 0.399091
-0.036849 -0.113409 -0.992865
-0.771772 -0.420544 0.476981
0.096777 -0.564254 -0.819909
-0.471604 -0.632597 -0.614338
0.579227 -0.770524 -0.266061
0.749881 -0.646578 0.140057
-0.49701 0.517485 0.696556
0.959967 0.0 -0.280114
-0.506732 0.266405 -0.819909
-0.688191 -0.599106 -0.409225
0.892803 -0.450447 0.0
-0.776629 0.564254 -0.280114
0.551783 -0.240536 -0.798548
0.16246 -0.759464 -0.629938
-0.309017 -0.951057 0.0
0.052786 -0.688191 -0.723607
0.854992 0.331232 0.399091
0.525731 0.839643 -0.136408
-0.305018 -0.518928 -0.798548
0.525731 0.0 0.850651
-0.029644 0.864188 -0.502295
0.687157 0.681718 -0.251148
0.687157 -0.681718 -0.251148
-0.6163 -0.68927 0.380895
-0.918855 -0.370268 -0.136408
0.425325 0.309017 -0.850651
0.080277 -0.988273 0.129891
-0.871566 0.113409 -0.476981
-0.174139 -0.282906 0.943207
-0.831052 0.238856 -0.502295
0.357121 -0.839643 -0.409225
0.203183 0.147621 -0.967949
-0.809017 0.587785 0.0
0.956626 -0.147621 0.251148
-0.553821 0.788983 -0.266061
-0.405006 -0.752344 0.519566
-0.840675 -0.152697 0.519566
-0.441426 0.160357 0.882852
-0.16246 -0.5 -0.850651
0.921508 -0.282906 0.266061
0.645743 -0.312773 -0.696556
-0.132689 -0.799133 -0.586328
0.296646 -0.912982 -0.280114
-0.379682 -0.915502 -0.13303
-0.704292 -0.709911 0.0
0.377187 -0.793863 0.476981
-0.063482 -0.195379 0.978671
-0.987059 -0.160357 0.0
0.986715 -0.082324 -0.140057
0.988023 -0.078193 0.13303
-0.455902 0.644005 0.614338
-0.892803 0.450447 0.0
0.025407 -0.331232 -0.943207
0.152509 0.988302 0.0
0.379682 0.915502 0.13303
0.850651 0.0 -0.525731
-0.288917 0.370268 0.882852
0.688191 -0.5 0.525731
-0.7825 0.568519 0.25393
0.483974 0.716567 0.502295
-0.67082 0.688191 -0.276393
0.551783 0.240536 -0.798548
-0.688191 0.599106 -0.409225
-0.579227 -0.770524 0.266061
0.077609 -0.238856 0.967949
0.6753 -0.490634 -0.550679
-0.6163 0.68927 0.380895
0.441426 -0.160357 -0.882852
0.525422 -0.381741 -0.760398
0.451377 -0.129732 0.882852
0.262866 0.809017 -0.525731
-0.436009 -0.864188 -0.251148
0.215248 0.253039 0.943207
-0.587785 -0.809017 0.0
-0.959967 0.0 0.280114
-0.577834 -0.518928 -0.629938
0.49701 -0.770524 -0.399091
-0.636088 -0.759464 -0.136408
0.296646 0.912982 -0.280114
0.221093 0.907272 0.357736
-0.964711 0.229045 -0.129891
0.166199 -0.120751 0.978671
-0.080277 -0.988273 -0.129891
-0.812731 -0.295242 0.502295
0.801024 -0.120751 0.586328
0.119245 0.0 0.992865
-0.794546 -0.490634 0.357736
-0.579227 0.71079 -0.399091
0.719017 -0.37314 -0.586328
-0.405006 0.752344 0.519566
-0.931189 0.070091 -0.357736
-0.782447 -0.469374 -0.409225
-0.931189 -0.070091 -0.357736
-0.132689 0.799133 -0.586328
0.203183 -0.147621 -0.967949
0.155218 0.955423 0.251148
-0.860696 0.442863 0.251148
0.155218 -0.955423 0.251148
0.964711 -0.229045 0.129891
-0.276393 0.850651 -0.447214
0.712149 -0.604043 -0.357736
-0.986715 -0.082324 0.140057
0.840675 -0.152697 -0.519566
-0.288917 -0.370268 0.882852
-0.577066 0.568519 0.586328
-0.753366 -0.644005 0.13303
-0.119245 0.0 -0.992865
0.645838 0.752344 -0.129891
-0.638197 0.262866 -0.723607
0.6163 -0.68927 -0.380895
-0.566543 0.082324 0.819909
-0.058253 0.599106 -0.798548
-0.096471 -0.070091 0.992865
0.49701 0.517485 -0.696556
-1.0 0.0 0.0
-0.911803 0.312773 0.266061
-0.052786 -0.688191 0.723607
0.531939 -0.681718 -0.502295
0.276393 -0.850651 0.447214
0.0 0.0 1.0
0.67209 0.389196 0.629938
0.747369 0.253039 0.614338
-0.951057 -0.309017 0.0
0.077609 0.238856 0.967949
-0.23095 -0.963828 -0.13303
0.009704 0.788983 -0.614338
0.769873 0.370602 0.519566
-0.90374 0.195379 -0.380895
-0.425325 0.309017 0.850651
-0.362371 0.724505 -0.586328
-0.305018 0.518928 -0.798548
-0.809017 -0.587785 0.0
-0.961007 -0.240536 0.136408
-0.553821 -0.788983 -0.266061
-0.226617 0.963861 0.140057
0.226617 -0.963861 -0.140057
0.036849 -0.113409 0.992865
-0.314969 0.709911 0.629938
-0.097919 -0.71079 -0.696556
0.210086 -0.646578 -0.733349
-0.138197 0.951057 0.276393
0.987059 0.160357 0.0
0.577834 -0.518928 0.629938
-0.138197 0.425325 0.894427
-0.782447 0.469374 -0.409225
0.947214 -0.16246 -0.276393
0.120416 0.370602 0.920953
-0.298888 0.919883 -0.25393
-0.956626 -0.147621 -0.251148
-0.097919 0.71079 -0.696556
-0.483974 -0.716567 -0.502295
0.704292 0.709911 0.0
0.307169 -0.126519 0.943207
-0.988023 0.078193 -0.13303
-0.712149 -0.604043 0.357736
-0.831052 -0.238856 -0.502295
-0.399274 -0.450447 0.798548
-0.645838 0.752344 0.129891
0.050813 0.915502 -0.399091
0.645743 0.312773 -0.696556
0.377187 0.793863 0.476981
0.70626 0.126519 0.696556
0.809017 0.587785 0.0
0.771772 -0.420544 -0.476981
-0.719017 0.37314 0.586328
-0.221093 0.907272 -0.357736
-0.918855 0.370268 -0.136408
0.579227 -0.71079 0.399091
-0.638452 -0.604043 0.476981
0.338573 0.632597 0.696556
-0.389674 0.0 -0.920953
-0.772496 -0.080179 0.629938
0.204612 -0.889196 -0.409225
-0.566543 -0.082324 0.819909
-0.67209 -0.389196 -0.629938
0.915097 -0.381741 -0.129891
-0.834717 0.0 -0.550679
0.861803 0.425325 0.276393
0.425325 -0.309017 -0.850651
0.776629 0.564254 0.280114
-0.357121 -0.839643 0.409225
0.251148 0.0 0.967949
-0.769873 0.370602 -0.519566
-0.908904 -0.080179 0.409225
-0.155218 0.955423 -0.251148
0.23095 -0.963828 0.13303
0.389674 0.0 0.920953
-0.204612 -0.889196 0.409225
0.138197 -0.425325 -0.894427
-0.49701 -0.770524 0.399091
-0.749881 -0.646578 -0.140057
0.138197 -0.951057 -0.276393
0.205433 0.0 -0.978671
-0.812731 0.295242 0.502295
-0.174139 0.282906 0.943207
-0.338573 -0.632597 -0.696556
-0.551783 -0.240536 0.798548
-0.015702 -0.963828 -0.266061
0.354413 -0.863954 0.357736
0.447214 0.0 -0.894427
-0.850651 0.0 0.525731
0.961007 0.240536 -0.136408
0.409955 0.399607 0.819909
-0.361803 -0.262866 -0.894427
-0.016101 -0.469374 -0.882852
0.506732 -0.266405 0.819909
0.845982 -0.37314 -0.380895
-0.457527 -0.889196 0.0
-0.120416 0.370602 -0.920953
-0.215248 0.253039 -0.943207
0.298888 -0.919883 0.25393
